# .PCD v0.7 - Point Cloud Data file format
VERSION 0.7
FIELDS x y z
SIZE 4 4 4
TYPE F F F
COUNT 1 1 1
WIDTH 1511
HEIGHT 1
VIEWPOINT 0 0 0 1 0 0 0
POINTS 1511
DATA ascii
0.17564847 0.023336144 1.056
0.17730713 0.023291947 1.054
0.17912835 0.023269849 1.0530001
0.18111779 0.023269849 1.0530001
0.18328112 0.023291947 1.054
0.18544823 0.023314046 1.0550001
0.18744145 0.023314046 1.0550001
0.18943468 0.023314046 1.0550001
0.19124645 0.023291947 1.054
0.19323778 0.023291947 1.054
0.1952291 0.023291947 1.054
0.19722043 0.023291947 1.054
0.19921176 0.023291947 1.054
0.20120309 0.023291947 1.054
0.20319442 0.023291947 1.054
0.20538042 0.023314046 1.0550001
0.20757021 0.023336144 1.056
0.20976377 0.023358243 1.057
0.21156043 0.023336144 1.056
0.21355553 0.023336144 1.056
0.21555065 0.023336144 1.056
0.21754575 0.023336144 1.056
0.21933296 0.023314046 1.0550001
0.22111639 0.023291947 1.054
0.22289605 0.023269849 1.0530001
0.22488549 0.023269849 1.0530001
0.22687493 0.023269849 1.0530001
0.22886437 0.023269849 1.0530001
0.23107305 0.023291947 1.054
0.23284325 0.023269849 1.0530001
0.23483269 0.023269849 1.0530001
0.23659724 0.023247749 1.052
0.23835799 0.02322565 1.051
0.24057233 0.023247749 1.052
0.24255988 0.023247749 1.052
0.24454744 0.023247749 1.052
0.24653499 0.023247749 1.052
0.24852253 0.023247749 1.052
0.25027195 0.02322565 1.051
0.25225762 0.02322565 1.051
0.25424328 0.02322565 1.051
0.25622892 0.02322565 1.051
0.25846031 0.023247749 1.052
0.26044786 0.023247749 1.052
0.26268485 0.023269849 1.0530001
0.26467428 0.023269849 1.0530001
0.26666373 0.023269849 1.0530001
0.26865318 0.023269849 1.0530001
0.27064261 0.023269849 1.0530001
0.27263206 0.023269849 1.0530001
0.27462149 0.023269849 1.0530001
0.27661094 0.023269849 1.0530001
0.27860036 0.023269849 1.0530001
0.28058982 0.023269849 1.0530001
0.28257924 0.023269849 1.0530001
0.2845687 0.023269849 1.0530001
0.28628603 0.023247749 1.052
0.28827357 0.023247749 1.052
0.28998518 0.02322565 1.051
0.29224867 0.023247749 1.052
0.29423621 0.023247749 1.052
0.29594219 0.02322565 1.051
0.29764438 0.023203554 1.0500001
0.2999135 0.02322565 1.051
0.30161193 0.023203554 1.0500001
0.30359569 0.023203554 1.0500001
0.30557948 0.023203554 1.0500001
0.30756325 0.023203554 1.0500001
0.30984181 0.02322565 1.051
0.31212419 0.023247749 1.052
0.31411174 0.023247749 1.052
0.31639975 0.023269849 1.0530001
0.31808683 0.023247749 1.052
0.32007438 0.023247749 1.052
0.32206196 0.023247749 1.052
0.3240495 0.023247749 1.052
0.32572711 0.02322565 1.051
0.32771277 0.02322565 1.051
0.32938474 0.023203554 1.0500001
0.33136854 0.023203554 1.0500001
0.33271733 0.023159355 1.0480001
0.33469734 0.023159355 1.0480001
0.33699858 0.023181453 1.049
0.33930361 0.023203554 1.0500001
0.34128737 0.023203554 1.0500001
0.34359807 0.02322565 1.051
0.34558374 0.02322565 1.051
0.34723872 0.023203554 1.0500001
0.34922248 0.023203554 1.0500001
0.3505373 0.023159355 1.0480001
0.35251728 0.023159355 1.0480001
0.354159 0.023137257 1.0470001
0.35681739 0.023181453 1.049
0.35879928 0.023181453 1.049
0.36146903 0.02322565 1.051
0.36380053 0.023247749 1.052
0.36578807 0.023247749 1.052
0.36742601 0.02322565 1.051
0.36906022 0.023203554 1.0500001
0.37069058 0.023181453 1.049
0.37231722 0.023159355 1.0480001
0.37429723 0.023159355 1.0480001
0.37663624 0.023181453 1.049
0.37861812 0.023181453 1.049
0.38096285 0.023203554 1.0500001
0.38258189 0.023181453 1.049
0.38456377 0.023181453 1.049
0.38617718 0.023159355 1.0480001
0.38778678 0.023137257 1.0470001
0.3897649 0.023137257 1.0470001
0.391743 0.023137257 1.0470001
0.3937211 0.023137257 1.0470001
0.39607716 0.023159355 1.0480001
0.39843696 0.023181453 1.049
0.40041885 0.023181453 1.049
0.40240073 0.023181453 1.049
0.40438262 0.023181453 1.049
0.4063645 0.023181453 1.049
0.40834638 0.023181453 1.049
0.40993711 0.023159355 1.0480001
0.41152406 0.023137257 1.0470001
0.41350216 0.023137257 1.0470001
0.41508344 0.023115158 1.046
0.41705966 0.023115158 1.046
0.41943645 0.023137257 1.0470001
0.42141458 0.023137257 1.0470001
0.4229883 0.023115158 1.046
0.42496452 0.023115158 1.046
0.42694074 0.023115158 1.046
0.42932698 0.023137257 1.0470001
0.43130508 0.023137257 1.0470001
0.43369704 0.023159355 1.0480001
0.43567705 0.023159355 1.0480001
0.43765703 0.023159355 1.0480001
0.43921751 0.023137257 1.0470001
0.44119561 0.023137257 1.0470001
0.44275045 0.023115158 1.046
0.44472668 0.023115158 1.046
0.4467029 0.023115158 1.046
0.44825014 0.02309306 1.0450001
0.44979364 0.023070961 1.044
0.4521988 0.02309306 1.0450001
0.45417312 0.02309306 1.0450001
0.45614746 0.02309306 1.0450001
0.4585602 0.023115158 1.046
0.46053639 0.023115158 1.046
0.46251261 0.023115158 1.046
0.46493289 0.023137257 1.0470001
0.46646506 0.023115158 1.046
0.46888909 0.023137257 1.0470001
0.47131693 0.023159355 1.0480001
0.47329694 0.023159355 1.0480001
0.47482342 0.023137257 1.0470001
0.47589073 0.02309306 1.0450001
0.47695047 0.023048863 1.0430001
0.47846186 0.023026763 1.0420001
0.48089156 0.023048863 1.0430001
0.48286211 0.023048863 1.0430001
0.48576236 0.02309306 1.0450001
0.48867014 0.023137257 1.0470001
0.49064824 0.023137257 1.0470001
0.49262634 0.023137257 1.0470001
0.49413207 0.023115158 1.046
0.49610829 0.023115158 1.046
0.49760833 0.02309306 1.0450001
0.49958265 0.02309306 1.0450001
0.50203693 0.023115158 1.046
0.50353134 0.02309306 1.0450001
0.50453812 0.023048863 1.0430001
0.50699431 0.023070961 1.044
0.50847924 0.023048863 1.0430001
0.51093918 0.023070961 1.044
0.5138942 0.023115158 1.046
0.51537728 0.02309306 1.0450001
0.51685649 0.023070961 1.044
0.51882893 0.023070961 1.044
0.52080137 0.023070961 1.044
0.5232746 0.02309306 1.0450001
0.52575153 0.023115158 1.046
0.52722323 0.02309306 1.0450001
0.52869111 0.023070961 1.044
0.53015524 0.023048863 1.0430001
0.53161561 0.023026763 1.0420001
0.53307223 0.023004664 1.041
0.53452498 0.022982566 1.0400001
0.53648984 0.022982566 1.0400001
0.53793705 0.022960467 1.039
0.5399 0.022960467 1.039
0.54186302 0.022960467 1.039
0.54434937 0.022982566 1.0400001
0.54683959 0.023004664 1.041
0.54986072 0.023048863 1.0430001
0.55183131 0.023048863 1.0430001
0.55380183 0.023048863 1.0430001
0.55577236 0.023048863 1.0430001
0.55774289 0.023048863 1.0430001
0.5602501 0.023070961 1.044
0.56222254 0.023070961 1.044
0.56365454 0.023048863 1.0430001
0.56454051 0.023004664 1.041
0.56705147 0.023026763 1.0420001
0.56902015 0.023026763 1.0420001
0.57372862 0.023137257 1.0470001
0.57680649 0.023181453 1.049
0.5793401 0.023203554 1.0500001
0.58132392 0.023203554 1.0500001
0.58497429 0.023269849 1.0530001
0.58752114 0.023291947 1.054
0.58839381 0.023247749 1.052
0.58982015 0.02322565 1.051
0.59124279 0.023203554 1.0500001
0.59521031 0.023203554 1.0500001
0.60467869 0.022960467 1.039
0.60605782 0.022938369 1.0380001
0.60743314 0.02291627 1.0370001
0.60939234 0.02291627 1.0370001
0.62515938 0.023137257 1.0470001
0.62833548 0.023181453 1.049
0.63151908 0.02322565 1.051
0.63290197 0.023203554 1.0500001
0.63367641 0.023159355 1.0480001
0.64579779 0.023026763 1.0420001
0.65025312 0.023115158 1.046
0.65597057 0.023247749 1.052
0.65795809 0.023247749 1.052
0.66057301 0.023269849 1.0530001
0.66067481 0.023203554 1.0500001
0.6601342 0.023115158 1.046
0.65957844 0.023026763 1.0420001
0.66154706 0.023026763 1.0420001
0.6641525 0.023048863 1.0430001
0.6667617 0.023070961 1.044
0.66809356 0.023048863 1.0430001
0.67134905 0.02309306 1.0450001
0.67525631 0.023159355 1.0480001
0.67788255 0.023181453 1.049
0.68180871 0.023247749 1.052
0.67729634 0.023026763 1.0420001
0.68904328 0.023358243 1.057
0.69104028 0.023358243 1.057
0.69303727 0.023358243 1.057
0.69043142 0.023203554 1.0500001
0.6877991 0.023048863 1.0430001
0.68778563 0.022982566 1.0400001
0.68643439 0.022872072 1.0350001
0.68772471 0.022849975 1.034
0.70367181 0.023247749 1.052
0.70431781 0.023203554 1.0500001
-0.72529095 0.025155917 1.049
-0.72124052 0.025083976 1.046
-0.71857667 0.025059994 1.0450001
-0.71660233 0.025059994 1.0450001
-0.71599573 0.025107956 1.0470001
-0.71401763 0.025107956 1.0470001
-0.71203953 0.025107956 1.0470001
-0.70278203 0.025059994 1.0450001
-0.70080769 0.025059994 1.0450001
-0.69950217 0.025083976 1.046
-0.69819278 0.025107956 1.0470001
-0.69687968 0.025131937 1.0480001
-0.69423658 0.025107956 1.0470001
-0.69159728 0.025083976 1.046
-0.68896174 0.025059994 1.0450001
-0.68633008 0.025036013 1.044
-0.68435764 0.025036013 1.044
-0.68303877 0.025059994 1.0450001
-0.68236798 0.025107956 1.0470001
-0.68103969 0.025131937 1.0480001
-0.67905974 0.025131937 1.0480001
-0.67643362 0.025107956 1.0470001
-0.67381132 0.025083976 1.046
-0.67183512 0.025083976 1.046
-0.66921848 0.025059994 1.0450001
-0.66660571 0.025036013 1.044
-0.66463327 0.025036013 1.044
-0.66202611 0.025012033 1.0430001
-0.6594227 0.024988052 1.0420001
-0.65808499 0.025012033 1.0430001
-0.6580016 0.025083976 1.046
-0.65727979 0.025131937 1.0480001
-0.65529978 0.025131937 1.0480001
-0.65269637 0.025107956 1.0470001
-0.64947522 0.025059994 1.0450001
-0.64688134 0.025036013 1.044
-0.64367342 0.024988052 1.0420001
-0.64170474 0.024988052 1.0420001
-0.63973612 0.024988052 1.0420001
-0.63899159 0.025036013 1.044
-0.63823944 0.025083976 1.046
-0.63626325 0.025083976 1.046
-0.63428706 0.025083976 1.046
-0.63231081 0.025083976 1.046
-0.62973195 0.025059994 1.0450001
-0.62775767 0.025059994 1.0450001
-0.62578332 0.025059994 1.0450001
-0.6226151 0.025012033 1.0430001
-0.62004954 0.024988052 1.0420001
-0.61867404 0.025012033 1.0430001
-0.61788601 0.025059994 1.0450001
-0.61591166 0.025059994 1.0450001
-0.6145249 0.025083976 1.046
-0.61313426 0.025107956 1.0470001
-0.61115617 0.025107956 1.0470001
-0.60859621 0.025083976 1.046
-0.60662001 0.025083976 1.046
-0.60406572 0.025059994 1.0450001
-0.60209143 0.025059994 1.0450001
-0.60011709 0.025059994 1.0450001
-0.59871513 0.025083976 1.046
-0.59673893 0.025083976 1.046
-0.59533137 0.025107956 1.0470001
-0.59448665 0.025155917 1.049
-0.59250474 0.025155917 1.049
-0.59052289 0.025155917 1.049
-0.58741891 0.025107956 1.0470001
-0.58320415 0.025012033 1.0430001
-0.58011907 0.024964072 1.041
-0.5781523 0.024964072 1.041
-0.57673901 0.024988052 1.0420001
-0.57587361 0.025036013 1.044
-0.57445085 0.025059994 1.0450001
-0.57247651 0.025059994 1.0450001
-0.5699563 0.025036013 1.044
-0.56743979 0.025012033 1.0430001
-0.56546926 0.025012033 1.0430001
-0.56403899 0.025036013 1.044
-0.56314325 0.025083976 1.046
-0.56170356 0.025107956 1.0470001
-0.56079465 0.025155917 1.049
-0.55881274 0.025155917 1.049
-0.55683088 0.025155917 1.049
-0.55484897 0.025155917 1.049
-0.55286711 0.025155917 1.049
-0.55141038 0.0251799 1.0500001
-0.54942662 0.0251799 1.0500001
-0.54692143 0.025155917 1.049
-0.54442012 0.025131937 1.0480001
-0.54244012 0.025131937 1.0480001
-0.53994441 0.025107956 1.0470001
-0.53745246 0.025083976 1.046
-0.53547627 0.025083976 1.046
-0.53298998 0.025059994 1.0450001
-0.53101563 0.025059994 1.0450001
-0.52904135 0.025059994 1.0450001
-0.52706701 0.025059994 1.0450001
-0.52509266 0.025059994 1.0450001
-0.52361894 0.025083976 1.046
-0.52164274 0.025083976 1.046
-0.51966655 0.025083976 1.046
-0.51818526 0.025107956 1.0470001
-0.51620716 0.025107956 1.0470001
-0.51422906 0.025107956 1.0470001
-0.51225096 0.025107956 1.0470001
-0.51076019 0.025131937 1.0480001
-0.50878024 0.025131937 1.0480001
-0.50728375 0.025155917 1.049
-0.50482023 0.025131937 1.0480001
-0.50284022 0.025131937 1.0480001
-0.50086021 0.025131937 1.0480001
-0.49888024 0.025131937 1.0480001
-0.49737436 0.025155917 1.049
-0.49586475 0.0251799 1.0500001
-0.49388096 0.0251799 1.0500001
-0.49096024 0.025131937 1.0480001
-0.48898026 0.025131937 1.0480001
-0.48700026 0.025131937 1.0480001
-0.48548308 0.025155917 1.049
-0.48442304 0.02520388 1.051
-0.48289639 0.02522786 1.052
-0.48090884 0.02522786 1.052
-0.47846603 0.02520388 1.051
-0.47602701 0.0251799 1.0500001
-0.47359177 0.025155917 1.049
-0.47205946 0.0251799 1.0500001
-0.4700757 0.0251799 1.0500001
-0.46853775 0.02520388 1.051
-0.46655208 0.02520388 1.051
-0.46456641 0.02520388 1.051
-0.46258074 0.02520388 1.051
-0.4605951 0.02520388 1.051
-0.45860943 0.02520388 1.051
-0.45662376 0.02520388 1.051
-0.45463809 0.02520388 1.051
-0.45265242 0.02520388 1.051
-0.45023796 0.0251799 1.0500001
-0.4482542 0.0251799 1.0500001
-0.44542038 0.025131937 1.0480001
-0.44259411 0.025083976 1.046
-0.44061792 0.025083976 1.046
-0.43906105 0.025107956 1.0470001
-0.43750039 0.025131937 1.0480001
-0.435936 0.025155917 1.049
-0.43478149 0.02520388 1.051
-0.4332076 0.02522786 1.052
-0.43122005 0.02522786 1.052
-0.42964053 0.025251841 1.0530001
-0.42805719 0.025275821 1.054
-0.42606586 0.025275821 1.054
-0.42407453 0.025275821 1.054
-0.4220832 0.025275821 1.054
-0.42009187 0.025275821 1.054
-0.41810054 0.025275821 1.054
-0.41571444 0.025251841 1.0530001
-0.41372499 0.025251841 1.0530001
-0.41134453 0.02522786 1.052
-0.40896788 0.02520388 1.051
-0.40736943 0.02522786 1.052
-0.40538189 0.02522786 1.052
-0.40339434 0.02522786 1.052
-0.40102524 0.02520388 1.051
-0.39903957 0.02520388 1.051
-0.39743167 0.02522786 1.052
-0.39544412 0.02522786 1.052
-0.39345658 0.02522786 1.052
-0.39184114 0.025251841 1.0530001
-0.38911125 0.02520388 1.051
-0.38749391 0.02522786 1.052
-0.38623926 0.025275821 1.054
-0.38424793 0.025275821 1.054
-0.38298196 0.025323784 1.056
-0.38134763 0.025347764 1.057
-0.3793506 0.025347764 1.057
-0.37735361 0.025347764 1.057
-0.37535661 0.025347764 1.057
-0.3730064 0.025323784 1.056
-0.37101132 0.025323784 1.056
-0.36936563 0.025347764 1.057
-0.36736864 0.025347764 1.057
-0.36537164 0.025347764 1.057
-0.36371842 0.025371745 1.0580001
-0.36206141 0.025395727 1.059
-0.36040065 0.025419708 1.0600001
-0.3587361 0.025443688 1.0610001
-0.35673153 0.025443688 1.0610001
-0.35472697 0.025443688 1.0610001
-0.35272244 0.025443688 1.0610001
-0.35071787 0.025443688 1.0610001
-0.34871331 0.025443688 1.0610001
-0.34703556 0.025467668 1.062
-0.34535396 0.025491649 1.0630001
-0.34334564 0.025491649 1.0630001
-0.3410162 0.025467668 1.062
-0.33869055 0.025443688 1.0610001
-0.33668599 0.025443688 1.0610001
-0.33468142 0.025443688 1.0610001
-0.33299044 0.025467668 1.062
-0.33129564 0.025491649 1.0630001
-0.32928729 0.025491649 1.0630001
-0.32727897 0.025491649 1.0630001
-0.32496467 0.025467668 1.062
-0.3229582 0.025467668 1.062
-0.32095176 0.025467668 1.062
-0.31924564 0.025491649 1.0630001
-0.31753576 0.025515631 1.064
-0.31522897 0.025491649 1.0630001
-0.31322062 0.025491649 1.0630001
-0.3112123 0.025491649 1.0630001
-0.30920395 0.025491649 1.0630001
-0.30719563 0.025491649 1.0630001
-0.30518728 0.025491649 1.0630001
-0.30289376 0.025467668 1.062
-0.30088732 0.025467668 1.062
-0.2991623 0.025491649 1.0630001
-0.29743353 0.025515631 1.064
-0.29570094 0.025539612 1.0650001
-0.29396459 0.025563592 1.0660001
-0.29195061 0.025563592 1.0660001
-0.2899366 0.025563592 1.0660001
-0.28792259 0.025563592 1.0660001
-0.28564039 0.025539612 1.0650001
-0.28336197 0.025515631 1.064
-0.28108728 0.025491649 1.0630001
-0.27907896 0.025491649 1.0630001
-0.27707061 0.025491649 1.0630001
-0.27557981 0.025539612 1.0650001
-0.27356771 0.025539612 1.0650001
-0.2715556 0.025539612 1.0650001
-0.26929039 0.025515631 1.064
-0.26728016 0.025515631 1.064
-0.26526996 0.025515631 1.064
-0.26325974 0.025515631 1.064
-0.26149502 0.025539612 1.0650001
-0.25972658 0.025563592 1.0660001
-0.25771257 0.025563592 1.0660001
-0.25569856 0.025563592 1.0660001
-0.25368458 0.025563592 1.0660001
-0.25167057 0.025563592 1.0660001
-0.24965657 0.025563592 1.0660001
-0.24787486 0.025587572 1.067
-0.24585897 0.025587572 1.067
-0.24361455 0.025563592 1.0660001
-0.24160054 0.025563592 1.0660001
-0.23958655 0.025563592 1.0660001
-0.23734967 0.025539612 1.0650001
-0.2351166 0.025515631 1.064
-0.23310639 0.025515631 1.064
-0.23109616 0.025515631 1.064
-0.22887063 0.025491649 1.0630001
-0.22664888 0.025467668 1.062
-0.22464244 0.025467668 1.062
-0.22242635 0.025443688 1.0610001
-0.22021404 0.025419708 1.0600001
-0.21841724 0.025443688 1.0610001
-0.21661666 0.025467668 1.062
-0.21501437 0.025515631 1.064
-0.21300416 0.025515631 1.064
-0.21099393 0.025515631 1.064
-0.2091801 0.025539612 1.0650001
-0.20736252 0.025563592 1.0660001
-0.20554115 0.025587572 1.067
-0.20390676 0.025635535 1.069
-0.20188709 0.025635535 1.069
-0.19968045 0.025611553 1.0680001
-0.19747759 0.025587572 1.067
-0.19546169 0.025587572 1.067
-0.1934458 0.025587572 1.067
-0.19142991 0.025587572 1.067
-0.18941402 0.025587572 1.067
-0.1872225 0.025563592 1.0660001
-0.18503475 0.025539612 1.0650001
-0.18285081 0.025515631 1.064
-0.18067062 0.025491649 1.0630001
-0.17832613 0.025443688 1.0610001
-0.17632158 0.025443688 1.0610001
-0.17415273 0.025419708 1.0600001
-0.17231247 0.025443688 1.0610001
-0.17046843 0.025467668 1.062
-0.16846199 0.025467668 1.062
-0.16645554 0.025467668 1.062
-0.16460395 0.025491649 1.0630001
-0.16244265 0.025467668 1.062
-0.16028515 0.025443688 1.0610001
-0.15828058 0.025443688 1.0610001
-0.15627603 0.025443688 1.0610001
-0.15427147 0.025443688 1.0610001
-0.15226692 0.025443688 1.0610001
-0.15026236 0.025443688 1.0610001
-0.14825781 0.025443688 1.0610001
-0.14611541 0.025419708 1.0600001
-0.14411274 0.025419708 1.0600001
-0.14211008 0.025419708 1.0600001
-0.13997523 0.025395727 1.059
-0.13810474 0.025419708 1.0600001
-0.13610208 0.025419708 1.0600001
-0.13422592 0.025443688 1.0610001
-0.13222137 0.025443688 1.0610001
-0.13009408 0.025419708 1.0600001
-0.12797058 0.025395727 1.059
-0.12644561 0.025491649 1.0630001
-0.12385195 0.025371745 1.0580001
-0.12219858 0.025443688 1.0610001
-0.12019403 0.025443688 1.0610001
-0.11818947 0.025443688 1.0610001
-0.11629442 0.025467668 1.062
-0.1143956 0.025491649 1.0630001
-0.11228153 0.025467668 1.062
-0.11027509 0.025467668 1.062
-0.10826865 0.025467668 1.062
-0.10616214 0.025443688 1.0610001
-0.10415759 0.025443688 1.0610001
-0.10224931 0.025467668 1.062
-0.10043165 0.025515631 1.064
-0.098421425 0.025515631 1.064
-0.09650182 0.025539612 1.0650001
-0.094489701 0.025539612 1.0650001
-0.09247759 0.025539612 1.0650001
-0.090465479 0.025539612 1.0650001
-0.088453367 0.025539612 1.0650001
-0.086360089 0.025515631 1.064
-0.084349863 0.025515631 1.064
-0.082262255 0.025491649 1.0630001
-0.080329418 0.025515631 1.064
-0.078319199 0.025515631 1.064
-0.076308973 0.025515631 1.064
-0.074368581 0.025539612 1.0650001
-0.07235647 0.025539612 1.0650001
-0.070344359 0.025539612 1.0650001
-0.06833224 0.025539612 1.0650001
-0.066382401 0.025563592 1.0660001
-0.064368404 0.025563592 1.0660001
-0.062354401 0.025563592 1.0660001
-0.060340397 0.025563592 1.0660001
-0.058326397 0.025563592 1.0660001
-0.056312393 0.025563592 1.0660001
-0.054247458 0.025539612 1.0650001
-0.052235343 0.025539612 1.0650001
-0.050223231 0.025539612 1.0650001
-0.04816585 0.025515631 1.064
-0.046112247 0.025491649 1.0630001
-0.044103913 0.025491649 1.0630001
-0.042055976 0.025467668 1.062
-0.040011823 0.025443688 1.0610001
-0.038007267 0.025443688 1.0610001
-0.036002714 0.025443688 1.0610001
-0.033966113 0.025419708 1.0600001
-0.031993601 0.025443688 1.0610001
-0.030017311 0.025467668 1.062
-0.028010866 0.025467668 1.062
-0.026004422 0.025467668 1.062
-0.023997977 0.025467668 1.062
-0.021970827 0.025443688 1.0610001
-0.019966271 0.025443688 1.0610001
-0.017944787 0.025419708 1.0600001
-0.01586692 0.025299804 1.0550001
-0.013873702 0.025299804 1.0550001
-0.011880483 0.025299804 1.0550001
-0.0098872632 0.025299804 1.0550001
-0.0079314569 0.025419708 1.0600001
-0.0059343837 0.025443688 1.0610001
-0.0039298288 0.025443688 1.0610001
-0.0019252734 0.025443688 1.0610001
7.9281723e-05 0.025443688 1.0610001
0.0020720528 0.025299804 1.0550001
0.0040806853 0.025395727 1.059
0.0060814619 0.025395727 1.059
0.008082239 0.025395727 1.059
0.010083015 0.025395727 1.059
0.012095203 0.025419708 1.0600001
0.014097868 0.025419708 1.0600001
0.016115723 0.025443688 1.0610001
0.018120278 0.025443688 1.0610001
0.020105867 0.025419708 1.0600001
0.022087676 0.025395727 1.059
0.024088452 0.025395727 1.059
0.026089229 0.025395727 1.059
0.02811653 0.025419708 1.0600001
0.030147608 0.025443688 1.0610001
0.03218247 0.025467668 1.062
0.034188915 0.025467668 1.062
0.036229439 0.025491649 1.0630001
0.038237773 0.025491649 1.0630001
0.040246107 0.025491649 1.0630001
0.042294193 0.025515631 1.064
0.044304416 0.025515631 1.064
0.046314638 0.025515631 1.064
0.048370279 0.025539612 1.0650001
0.050335083 0.025515631 1.064
0.052296109 0.025491649 1.0630001
0.054304443 0.025491649 1.0630001
0.056259803 0.025467668 1.062
0.058266249 0.025467668 1.062
0.060272694 0.025467668 1.062
0.062161844 0.025419708 1.0600001
0.064164512 0.025419708 1.0600001
0.066104755 0.025395727 1.059
0.06804122 0.025371745 1.0580001
0.070040107 0.025371745 1.0580001
0.072039001 0.025371745 1.0580001
0.074037887 0.025371745 1.0580001
0.075964905 0.025347764 1.057
0.077961899 0.025347764 1.057
0.079958901 0.025347764 1.057
0.081878364 0.025323784 1.056
0.08379405 0.025299804 1.0550001
0.085787266 0.025299804 1.0550001
0.087780483 0.025299804 1.0550001
0.0898588 0.025323784 1.056
0.091853909 0.025323784 1.056
0.093849018 0.025323784 1.056
0.095844127 0.025323784 1.056
0.097931884 0.025347764 1.057
0.10002342 0.025371745 1.0580001
0.10192588 0.025347764 1.057
0.10392287 0.025347764 1.057
0.10581966 0.025323784 1.056
0.10781477 0.025323784 1.056
0.10980988 0.025323784 1.056
0.11180499 0.025323784 1.056
0.11390787 0.025347764 1.057
0.11590486 0.025347764 1.057
0.11790186 0.025347764 1.057
0.11989886 0.025347764 1.057
0.12189586 0.025347764 1.057
0.12401006 0.025371745 1.0580001
0.12612805 0.025395727 1.059
0.12800784 0.025371745 1.0580001
0.13000673 0.025371745 1.0580001
0.13188085 0.025347764 1.057
0.13387784 0.025347764 1.057
0.13600339 0.025371745 1.0580001
0.13800228 0.025371745 1.0580001
0.13986884 0.025347764 1.057
0.14186583 0.025347764 1.057
0.14359063 0.025299804 1.0550001
0.14544585 0.025275821 1.054
0.14743719 0.025275821 1.054
0.14957029 0.025299804 1.0550001
0.15156351 0.025299804 1.0550001
0.15355672 0.025299804 1.0550001
0.1554025 0.025275821 1.054
0.15739383 0.025275821 1.054
0.15923394 0.025251841 1.0530001
0.16122338 0.025251841 1.0530001
0.16305783 0.02522786 1.052
0.16504538 0.02522786 1.052
0.16719171 0.025251841 1.0530001
0.16934182 0.025275821 1.054
0.17165825 0.025323784 1.056
0.17348891 0.025299804 1.0550001
0.17548214 0.025299804 1.0550001
0.17713891 0.025251841 1.0530001
0.17895824 0.02522786 1.052
0.1809458 0.02522786 1.052
0.18310723 0.025251841 1.0530001
0.18527246 0.025275821 1.054
0.18726379 0.025275821 1.054
0.18925512 0.025275821 1.054
0.191065 0.025251841 1.0530001
0.19287111 0.02522786 1.052
0.19504388 0.025251841 1.0530001
0.19703332 0.025251841 1.0530001
0.19902276 0.025251841 1.0530001
0.20101219 0.025251841 1.0530001
0.20300165 0.025251841 1.0530001
0.20499109 0.025251841 1.0530001
0.20717709 0.025275821 1.054
0.20936687 0.025299804 1.0550001
0.21136008 0.025299804 1.0550001
0.21335331 0.025299804 1.0550001
0.21534653 0.025299804 1.0550001
0.21733974 0.025299804 1.0550001
0.21912506 0.025275821 1.054
0.22111639 0.025275821 1.054
0.22268437 0.02522786 1.052
0.22445835 0.02520388 1.051
0.22644402 0.02520388 1.051
0.22864702 0.02522786 1.052
0.23085381 0.025251841 1.0530001
0.23284325 0.025251841 1.0530001
0.23460968 0.02522786 1.052
0.23659724 0.02522786 1.052
0.23858479 0.02522786 1.052
0.24034366 0.02520388 1.051
0.24209875 0.0251799 1.0500001
0.24408253 0.0251799 1.0500001
0.24606629 0.0251799 1.0500001
0.24781382 0.025155917 1.049
0.25003383 0.0251799 1.0500001
0.25201762 0.0251799 1.0500001
0.25375947 0.025155917 1.049
0.25598517 0.0251799 1.0500001
0.25846031 0.02522786 1.052
0.26044786 0.02522786 1.052
0.26243541 0.02522786 1.052
0.26442295 0.02522786 1.052
0.26615724 0.02520388 1.051
0.26814291 0.02520388 1.051
0.27012858 0.02520388 1.051
0.27211425 0.02520388 1.051
0.27409989 0.02520388 1.051
0.27608556 0.02520388 1.051
0.27833581 0.02522786 1.052
0.28032336 0.02522786 1.052
0.2823109 0.02522786 1.052
0.28429848 0.02522786 1.052
0.28601387 0.02520388 1.051
0.28772554 0.0251799 1.0500001
0.2897093 0.0251799 1.0500001
0.29141524 0.025155917 1.049
0.29367685 0.0251799 1.0500001
0.29537901 0.025155917 1.049
0.29707745 0.025131937 1.0480001
0.29934278 0.025155917 1.049
0.30132467 0.025155917 1.049
0.30330655 0.025155917 1.049
0.30557948 0.0251799 1.0500001
0.30756325 0.0251799 1.0500001
0.30954704 0.0251799 1.0500001
0.31182748 0.02520388 1.051
0.31381315 0.02520388 1.051
0.31579879 0.02520388 1.051
0.31778446 0.02520388 1.051
0.31946588 0.0251799 1.0500001
0.32144967 0.0251799 1.0500001
0.32343343 0.0251799 1.0500001
0.32541722 0.0251799 1.0500001
0.32740098 0.0251799 1.0500001
0.32907104 0.025155917 1.049
0.33105293 0.025155917 1.049
0.33271733 0.025131937 1.0480001
0.33469734 0.025131937 1.0480001
0.33667734 0.025131937 1.0480001
0.33898047 0.025155917 1.049
0.34096235 0.025155917 1.049
0.34327117 0.0251799 1.0500001
0.34492612 0.025155917 1.049
0.346908 0.025155917 1.049
0.34855729 0.025131937 1.0480001
0.3502028 0.025107956 1.0470001
0.3521809 0.025107956 1.0470001
0.35382077 0.025083976 1.046
0.35647726 0.025131937 1.0480001
0.35743114 0.025059994 1.0450001
0.36009333 0.025107956 1.0470001
0.36241725 0.025131937 1.0480001
0.36578807 0.02522786 1.052
0.36707643 0.0251799 1.0500001
0.3687087 0.025155917 1.049
0.37033722 0.025131937 1.0480001
0.37196195 0.025107956 1.0470001
0.37394005 0.025107956 1.0470001
0.37591815 0.025107956 1.0470001
0.37825722 0.025131937 1.0480001
0.38023719 0.025131937 1.0480001
0.3822172 0.025131937 1.0480001
0.38419721 0.025131937 1.0480001
0.38580868 0.025107956 1.0470001
0.38778678 0.025107956 1.0470001
0.38939264 0.025083976 1.046
0.39136887 0.025083976 1.046
0.39334506 0.025083976 1.046
0.39532128 0.025083976 1.046
0.3976773 0.025107956 1.0470001
0.39965543 0.025107956 1.0470001
0.40163353 0.025107956 1.0470001
0.40399712 0.025131937 1.0480001
0.40597713 0.025131937 1.0480001
0.40795714 0.025131937 1.0480001
0.40954593 0.025107956 1.0470001
0.41113102 0.025083976 1.046
0.41310722 0.025083976 1.046
0.41468659 0.025059994 1.0450001
0.41666093 0.025059994 1.0450001
0.41863525 0.025059994 1.0450001
0.42060956 0.025059994 1.0450001
0.42258391 0.025059994 1.0450001
0.42415196 0.025036013 1.044
0.42612439 0.025036013 1.044
0.42850688 0.025059994 1.0450001
0.43089315 0.025083976 1.046
0.43328321 0.025107956 1.0470001
0.43526131 0.025107956 1.0470001
0.43682182 0.025083976 1.046
0.43879804 0.025083976 1.046
0.44077423 0.025083976 1.046
0.44232717 0.025059994 1.0450001
0.44430149 0.025059994 1.0450001
0.44627583 0.025059994 1.0450001
0.4478212 0.025036013 1.044
0.44936281 0.025012033 1.0430001
0.45176607 0.025036013 1.044
0.45373851 0.025036013 1.044
0.45571095 0.025036013 1.044
0.45812178 0.025059994 1.0450001
0.46009609 0.025059994 1.0450001
0.46207044 0.025059994 1.0450001
0.46404475 0.025059994 1.0450001
0.46601909 0.025059994 1.0450001
0.46799341 0.025059994 1.0450001
0.47041747 0.025083976 1.046
0.47239369 0.025083976 1.046
0.47391638 0.025059994 1.0450001
0.47497991 0.025012033 1.0430001
0.47649321 0.024988052 1.0420001
0.47800267 0.024964072 1.041
0.48043051 0.024988052 1.0420001
0.48239917 0.024988052 1.0420001
0.48529753 0.025036013 1.044
0.48820341 0.025083976 1.046
0.49017963 0.025083976 1.046
0.49168533 0.025059994 1.0450001
0.49318728 0.025036013 1.044
0.49515972 0.025036013 1.044
0.49665594 0.025012033 1.0430001
0.4986265 0.025012033 1.0430001
0.50059706 0.025012033 1.0430001
0.50208575 0.024988052 1.0420001
0.50357068 0.024964072 1.041
0.50602305 0.024988052 1.0420001
0.50799173 0.024988052 1.0420001
0.50996041 0.024988052 1.0420001
0.5124203 0.025012033 1.0430001
0.51439089 0.025012033 1.0430001
0.51586634 0.024988052 1.0420001
0.5173381 0.024964072 1.041
0.51880592 0.024940088 1.0400001
0.52127159 0.024964072 1.041
0.52424359 0.025012033 1.0430001
0.52621418 0.025012033 1.0430001
0.52869111 0.025036013 1.044
0.52964699 0.024988052 1.0420001
0.53110546 0.024964072 1.041
0.53204805 0.024916109 1.039
0.53401101 0.024916109 1.039
0.53545821 0.024892129 1.0380001
0.53741926 0.024892129 1.0380001
0.53938037 0.024892129 1.0380001
0.54134148 0.024892129 1.0380001
0.54382598 0.024916109 1.039
0.54683959 0.024964072 1.041
0.54933357 0.024988052 1.0420001
0.55130219 0.024988052 1.0420001
0.5522089 0.024940088 1.0400001
0.55417377 0.024940088 1.0400001
0.55667347 0.024964072 1.041
0.55917686 0.024988052 1.0420001
0.56168401 0.025012033 1.0430001
0.56365454 0.025012033 1.0430001
0.56454051 0.024964072 1.041
0.56705147 0.024988052 1.0420001
0.56792796 0.024940088 1.0400001
0.56989282 0.024940088 1.0400001
0.57295746 0.024988052 1.0420001
0.5760296 0.025036013 1.044
0.5785557 0.025059994 1.0450001
0.58164108 0.025107956 1.0470001
0.58473402 0.025155917 1.049
0.58671594 0.025155917 1.049
0.58869779 0.025155917 1.049
0.59011656 0.025131937 1.0480001
0.59153157 0.025107956 1.0470001
0.60176879 0.024796205 1.034
0.60313845 0.024772225 1.033
0.60391861 0.024724262 1.031
0.60586649 0.024724262 1.031
0.62258607 0.025083976 1.046
0.62456232 0.025083976 1.046
0.62653852 0.025083976 1.046
0.62911558 0.025107956 1.0470001
0.62807989 0.024988052 1.0420001
0.64517808 0.024964072 1.041
0.64900976 0.025036013 1.044
0.65347636 0.025131937 1.0480001
0.64920205 0.024892129 1.0380001
0.65743637 0.025131937 1.0480001
0.65312427 0.024892129 1.0380001
0.65508538 0.024892129 1.0380001
0.65704644 0.024892129 1.0380001
0.66027731 0.024940088 1.0400001
0.6641525 0.025012033 1.0430001
0.66740042 0.025059994 1.0450001
0.66873413 0.025036013 1.044
0.66877931 0.024964072 1.041
0.66945738 0.024916109 1.039
0.66431195 0.024652321 1.028
0.67532772 0.024988052 1.0420001
0.67729634 0.024988052 1.0420001
0.67861313 0.024964072 1.041
0.677311 0.024844166 1.036
0.68648064 0.025107956 1.0470001
0.68714368 0.025059994 1.0450001
0.6858207 0.024940088 1.0400001
0.68311828 0.02470028 1.0300001
0.68767726 0.024724262 1.031
0.69296956 0.024844166 1.036
0.69693923 0.024916109 1.039
0.70159292 0.025012033 1.0430001
-0.74226856 0.027026931 1.0450001
-0.74029422 0.027026931 1.0450001
-0.7225253 0.027026931 1.0450001
-0.71917194 0.026975203 1.0430001
-0.71720141 0.026975203 1.0430001
-0.71523088 0.026975203 1.0430001
-0.70278203 0.027026931 1.0450001
-0.70147836 0.027052792 1.046
-0.69883341 0.027026931 1.0450001
-0.69685906 0.027026931 1.0450001
-0.69554973 0.027052792 1.046
-0.69291043 0.027026931 1.0450001
-0.69027495 0.027001066 1.044
-0.68830252 0.027001066 1.044
-0.68567264 0.026975203 1.0430001
-0.68304658 0.026949339 1.0420001
-0.68042427 0.026923478 1.041
-0.67910928 0.026949339 1.0420001
-0.67714059 0.026949339 1.0420001
-0.67517191 0.026949339 1.0420001
-0.67320329 0.026949339 1.0420001
-0.67123461 0.026949339 1.0420001
-0.66926599 0.026949339 1.0420001
-0.66665691 0.026923478 1.041
-0.66469014 0.026923478 1.041
-0.66272336 0.026923478 1.041
-0.66012192 0.026897613 1.0400001
-0.65752417 0.02687175 1.039
-0.65556115 0.02687175 1.039
-0.65548533 0.026949339 1.0420001
-0.65539819 0.027026931 1.0450001
-0.65342391 0.027026931 1.0450001
-0.65144956 0.027026931 1.0450001
-0.64885378 0.027001066 1.044
-0.64626169 0.026975203 1.0430001
-0.64305568 0.026923478 1.041
-0.64047307 0.026897613 1.0400001
-0.6385082 0.026897613 1.0400001
-0.63715535 0.026923478 1.041
-0.63518858 0.026923478 1.041
-0.63322181 0.026923478 1.041
-0.63125503 0.026923478 1.041
-0.62868381 0.026897613 1.0400001
-0.62671894 0.026897613 1.0400001
-0.62415332 0.02687175 1.039
-0.62099266 0.026820024 1.0370001
-0.61903346 0.026820024 1.0370001
-0.61766928 0.026845889 1.0380001
-0.61570817 0.026845889 1.0380001
-0.61552089 0.026923478 1.041
-0.61473292 0.026975203 1.0430001
-0.61334991 0.027001066 1.044
-0.61137748 0.027001066 1.044
-0.60882127 0.026975203 1.0430001
-0.60626888 0.026949339 1.0420001
-0.60430026 0.026949339 1.0420001
-0.60175353 0.026923478 1.041
-0.59978676 0.026923478 1.041
-0.59839427 0.026949339 1.0420001
-0.59642559 0.026949339 1.0420001
-0.59502745 0.026975203 1.0430001
-0.59419411 0.027026931 1.0450001
-0.59221977 0.027026931 1.0450001
-0.59024543 0.027026931 1.0450001
-0.58827114 0.027026931 1.0450001
-0.5857358 0.027001066 1.044
-0.5815267 0.026897613 1.0400001
-0.57789004 0.026820024 1.0370001
-0.57537544 0.026794162 1.036
-0.57397163 0.026820024 1.0370001
-0.57366717 0.026897613 1.0400001
-0.57335144 0.026975203 1.0430001
-0.57138091 0.026975203 1.0430001
-0.56886441 0.026949339 1.0420001
-0.56635165 0.026923478 1.041
-0.56438488 0.026923478 1.041
-0.5624181 0.026923478 1.041
-0.56152815 0.026975203 1.0430001
-0.56009412 0.027001066 1.044
-0.55919087 0.027052792 1.046
-0.55721462 0.027052792 1.046
-0.55523843 0.027052792 1.046
-0.55326217 0.027052792 1.046
-0.55128598 0.027052792 1.046
-0.54930979 0.027052792 1.046
-0.54681027 0.027026931 1.0450001
-0.54431462 0.027001066 1.044
-0.54234219 0.027001066 1.044
-0.54036975 0.027001066 1.044
-0.53788155 0.026975203 1.0430001
-0.53488338 0.026923478 1.041
-0.53291661 0.026923478 1.041
-0.53043985 0.026897613 1.0400001
-0.52847493 0.026897613 1.0400001
-0.52752256 0.026949339 1.0420001
-0.52504951 0.026923478 1.041
-0.52358526 0.026949339 1.0420001
-0.52161658 0.026949339 1.0420001
-0.52014667 0.026975203 1.0430001
-0.51817608 0.026975203 1.0430001
-0.51620555 0.026975203 1.0430001
-0.51423502 0.026975203 1.0430001
-0.51275563 0.027001066 1.044
-0.5107832 0.027001066 1.044
-0.50929809 0.027026931 1.0450001
-0.50732374 0.027026931 1.0450001
-0.50486588 0.027001066 1.044
-0.50241172 0.026975203 1.0430001
-0.49996135 0.026949339 1.0420001
-0.49799269 0.026949339 1.0420001
-0.49602404 0.026949339 1.0420001
-0.49500367 0.027001066 1.044
-0.49303123 0.027001066 1.044
-0.4910588 0.027001066 1.044
-0.4886179 0.026975203 1.0430001
-0.48664734 0.026975203 1.0430001
-0.48467678 0.026975203 1.0430001
-0.48363185 0.027026931 1.0450001
-0.48211843 0.027052792 1.046
-0.48060125 0.027078655 1.0470001
-0.47908029 0.027104519 1.0480001
-0.47664505 0.027078655 1.0470001
-0.47466695 0.027078655 1.0470001
-0.47223735 0.027052792 1.046
-0.47026113 0.027052792 1.046
-0.46828493 0.027052792 1.046
-0.46630871 0.027052792 1.046
-0.46433249 0.027052792 1.046
-0.46235627 0.027052792 1.046
-0.4608202 0.027078655 1.0470001
-0.4588421 0.027078655 1.0470001
-0.45730034 0.027104519 1.0480001
-0.4548859 0.027078655 1.0470001
-0.4529078 0.027078655 1.0470001
-0.45092967 0.027078655 1.0470001
-0.44852278 0.027052792 1.046
-0.44611967 0.027026931 1.0450001
-0.4432953 0.026975203 1.0430001
-0.44132474 0.026975203 1.0430001
-0.43935418 0.026975203 1.0430001
-0.43780297 0.027001066 1.044
-0.43624803 0.027026931 1.0450001
-0.43468925 0.027052792 1.046
-0.43271303 0.027052792 1.046
-0.43114865 0.027078655 1.0470001
-0.42958042 0.027104519 1.0480001
-0.42760044 0.027104519 1.0480001
-0.42602658 0.027130382 1.049
-0.4240447 0.027130382 1.049
-0.42206281 0.027130382 1.049
-0.41968045 0.027104519 1.0480001
-0.41770047 0.027104519 1.0480001
-0.41572046 0.027104519 1.0480001
-0.41374046 0.027104519 1.0480001
-0.4113676 0.027078655 1.0470001
-0.4093895 0.027078655 1.0470001
-0.4078005 0.027104519 1.0480001
-0.40582049 0.027104519 1.0480001
-0.40384051 0.027104519 1.0480001
-0.40186051 0.027104519 1.0480001
-0.39911738 0.027052792 1.046
-0.39714116 0.027052792 1.046
-0.39554274 0.027078655 1.0470001
-0.39394054 0.027104519 1.0480001
-0.39196053 0.027104519 1.0480001
-0.39035267 0.027130382 1.049
-0.38763034 0.027078655 1.0470001
-0.38602054 0.027104519 1.0480001
-0.38477346 0.027156245 1.0500001
-0.3827897 0.027156245 1.0500001
-0.38153127 0.027207971 1.052
-0.37990451 0.027233835 1.0530001
-0.37791505 0.027233835 1.0530001
-0.37592563 0.027233835 1.0530001
-0.37393618 0.027233835 1.0530001
-0.37194675 0.027233835 1.0530001
-0.3699573 0.027233835 1.0530001
-0.36796787 0.027233835 1.0530001
-0.36597842 0.027233835 1.0530001
-0.363989 0.027233835 1.0530001
-0.36199954 0.027233835 1.0530001
-0.36035198 0.027259696 1.054
-0.35904065 0.027311424 1.056
-0.35704553 0.027311424 1.056
-0.35505044 0.027311424 1.056
-0.35305533 0.027311424 1.056
-0.3507278 0.027285561 1.0550001
-0.3490651 0.027311424 1.056
-0.34739864 0.027337287 1.057
-0.34572846 0.027363149 1.0580001
-0.34405443 0.027389012 1.059
-0.34173065 0.027363149 1.0580001
-0.33941066 0.027337287 1.057
-0.33709446 0.027311424 1.056
-0.33509934 0.027311424 1.056
-0.33341965 0.027337287 1.057
-0.33142266 0.027337287 1.057
-0.32973734 0.027363149 1.0580001
-0.32773846 0.027363149 1.0580001
-0.32543167 0.027337287 1.057
-0.32343468 0.027337287 1.057
-0.32143769 0.027337287 1.057
-0.31974292 0.027363149 1.0580001
-0.31804433 0.027389012 1.059
-0.31604356 0.027389012 1.059
-0.31404278 0.027389012 1.059
-0.31174737 0.027363149 1.0580001
-0.30974847 0.027363149 1.0580001
-0.3074587 0.027337287 1.057
-0.3057507 0.027363149 1.0580001
-0.3037518 0.027363149 1.0580001
-0.30175292 0.027363149 1.0580001
-0.29975402 0.027363149 1.0580001
-0.29803658 0.027389012 1.059
-0.29631534 0.027414877 1.0600001
-0.29459032 0.027440738 1.0610001
-0.29286155 0.027466601 1.062
-0.29085511 0.027466601 1.062
-0.28857666 0.027440738 1.0610001
-0.28630203 0.027414877 1.0600001
-0.28429934 0.027414877 1.0600001
-0.28203034 0.027389012 1.059
-0.27976516 0.027363149 1.0580001
-0.27776629 0.027363149 1.0580001
-0.27576739 0.027363149 1.0580001
-0.27376851 0.027363149 1.0580001
-0.27228335 0.027414877 1.0600001
-0.27028069 0.027414877 1.0600001
-0.26827803 0.027414877 1.0600001
-0.26627535 0.027414877 1.0600001
-0.26402336 0.027389012 1.059
-0.26202258 0.027389012 1.059
-0.26026738 0.027414877 1.0600001
-0.25826469 0.027414877 1.0600001
-0.25626203 0.027414877 1.0600001
-0.25425938 0.027414877 1.0600001
-0.25249466 0.027440738 1.0610001
-0.2504901 0.027440738 1.0610001
-0.24871977 0.027466601 1.062
-0.24694563 0.027492465 1.0630001
-0.2449373 0.027492465 1.0630001
-0.24292897 0.027492465 1.0630001
-0.24069399 0.027466601 1.062
-0.23846279 0.027440738 1.0610001
-0.23645824 0.027440738 1.0610001
-0.23401172 0.027389012 1.059
-0.23201096 0.027389012 1.059
-0.23001018 0.027389012 1.059
-0.2277941 0.027363149 1.0580001
-0.22579521 0.027363149 1.0580001
-0.22358479 0.027337287 1.057
-0.22137815 0.027311424 1.056
-0.21917529 0.027285561 1.0550001
-0.21738793 0.027311424 1.056
-0.2155968 0.027337287 1.057
-0.21400397 0.027389012 1.059
-0.21220338 0.027414877 1.0600001
-0.21020071 0.027414877 1.0600001
-0.20819806 0.027414877 1.0600001
-0.2063899 0.027440738 1.0610001
-0.20477062 0.027492465 1.0630001
-0.20295304 0.027518328 1.064
-0.20094281 0.027518328 1.064
-0.19874562 0.027492465 1.0630001
-0.19673729 0.027492465 1.0630001
-0.19454576 0.027466601 1.062
-0.19253932 0.027466601 1.062
-0.19053288 0.027466601 1.062
-0.1883489 0.027440738 1.0610001
-0.18634436 0.027440738 1.0610001
-0.18416606 0.027414877 1.0600001
-0.18199153 0.027389012 1.059
-0.17982081 0.027363149 1.0580001
-0.17748576 0.027311424 1.056
-0.17549065 0.027311424 1.056
-0.17349555 0.027311424 1.056
-0.17150043 0.027311424 1.056
-0.16966584 0.027337287 1.057
-0.16766885 0.027337287 1.057
-0.16567186 0.027337287 1.057
-0.16367485 0.027337287 1.057
-0.16167785 0.027337287 1.057
-0.15952979 0.027311424 1.056
-0.15753467 0.027311424 1.056
-0.15553957 0.027311424 1.056
-0.15354446 0.027311424 1.056
-0.15154935 0.027311424 1.056
-0.14955424 0.027311424 1.056
-0.14755914 0.027311424 1.056
-0.14542618 0.027285561 1.0550001
-0.14343296 0.027285561 1.0550001
-0.14143974 0.027285561 1.0550001
-0.13997523 0.027389012 1.059
-0.13810474 0.027414877 1.0600001
-0.13546008 0.027285561 1.0550001
-0.13422592 0.027440738 1.0610001
-0.13222137 0.027440738 1.0610001
-0.13009408 0.027414877 1.0600001
-0.12797058 0.027389012 1.059
-0.12585084 0.027363149 1.0580001
-0.12385195 0.027363149 1.0580001
-0.1217379 0.027337287 1.057
-0.1197409 0.027337287 1.057
-0.11774389 0.027337287 1.057
-0.11585641 0.027363149 1.0580001
-0.11385752 0.027363149 1.0580001
-0.11185863 0.027363149 1.0580001
-0.10985974 0.027363149 1.0580001
-0.10724916 0.027207971 1.052
-0.10526162 0.027207971 1.052
-0.10337223 0.027233835 1.0530001
-0.1018642 0.027363149 1.0580001
-0.099959701 0.027389012 1.059
-0.098051429 0.027414877 1.0600001
-0.096048757 0.027414877 1.0600001
-0.094046094 0.027414877 1.0600001
-0.092130251 0.027440738 1.0610001
-0.090040758 0.027414877 1.0600001
-0.088038094 0.027414877 1.0600001
-0.08603543 0.027414877 1.0600001
-0.083953485 0.027389012 1.059
-0.081565775 0.027259696 1.054
-0.079951935 0.027389012 1.059
-0.077583112 0.027259696 1.054
-0.07559178 0.027259696 1.054
-0.074019432 0.027414877 1.0600001
-0.071541183 0.027233835 1.0530001
-0.069617793 0.027259696 1.054
-0.067690626 0.027285561 1.0550001
-0.06563513 0.027259696 1.054
-0.064006105 0.027414877 1.0600001
-0.062003437 0.027414877 1.0600001
-0.060057376 0.027440738 1.0610001
-0.058052819 0.027440738 1.0610001
-0.055731308 0.027285561 1.0550001
-0.053687152 0.027259696 1.054
-0.05169582 0.027259696 1.054
-0.049704492 0.027259696 1.054
-0.047667895 0.027233835 1.0530001
-0.045635074 0.027207971 1.052
-0.043606032 0.027182108 1.051
-0.04158077 0.027156245 1.0500001
-0.039596997 0.027156245 1.0500001
-0.037577402 0.027130382 1.049
-0.035595518 0.027130382 1.049
-0.033613637 0.027130382 1.049
-0.031661905 0.027156245 1.0500001
-0.029706396 0.027182108 1.051
-0.027720734 0.027182108 1.051
-0.025759559 0.027207971 1.052
-0.023749409 0.027182108 1.051
-0.021763748 0.027182108 1.051
-0.019778086 0.027182108 1.051
-0.017775496 0.027156245 1.0500001
-0.015791724 0.027156245 1.0500001
-0.01380795 0.027156245 1.0500001
-0.011824178 0.027156245 1.0500001
-0.0098404046 0.027156245 1.0500001
-0.0078566317 0.027156245 1.0500001
-0.0058784517 0.027182108 1.051
-0.003889086 0.027156245 1.0500001
-0.001905313 0.027156245 1.0500001
7.8459765e-05 0.027156245 1.0500001
0.0020720528 0.027285561 1.0550001
0.0040652719 0.027285561 1.0550001
0.0060642343 0.027311424 1.056
0.0080593424 0.027311424 1.056
0.010054451 0.027311424 1.056
0.01204956 0.027311424 1.056
0.014044669 0.027311424 1.056
0.016039778 0.027311424 1.056
0.018051963 0.027337287 1.057
0.020029996 0.027311424 1.056
0.022025103 0.027311424 1.056
0.023997467 0.027285561 1.0550001
0.025990685 0.027285561 1.0550001
0.027983906 0.027285561 1.0550001
0.030033952 0.027337287 1.057
0.032061253 0.027363149 1.0580001
0.034060139 0.027363149 1.0580001
0.036093112 0.027389012 1.059
0.038093887 0.027389012 1.059
0.040094666 0.027389012 1.059
0.04213519 0.027414877 1.0600001
0.044137858 0.027414877 1.0600001
0.046184052 0.027440738 1.0610001
0.048188604 0.027440738 1.0610001
0.050145853 0.027414877 1.0600001
0.052099325 0.027389012 1.059
0.054049011 0.027363149 1.0580001
0.056047898 0.027363149 1.0580001
0.058046788 0.027363149 1.0580001
0.05998892 0.027337287 1.057
0.061868634 0.027285561 1.0550001
0.063861854 0.027285561 1.0550001
0.06579265 0.027259696 1.054
0.067783982 0.027259696 1.054
0.069841512 0.027285561 1.0550001
0.071766645 0.027259696 1.054
0.073757969 0.027259696 1.054
0.075677432 0.027233835 1.0530001
0.077666879 0.027233835 1.0530001
0.079580672 0.027207971 1.052
0.081490681 0.027182108 1.051
0.083476342 0.027182108 1.051
0.085380688 0.027156245 1.0500001
0.087447666 0.027182108 1.051
0.089433327 0.027182108 1.051
0.091505982 0.027207971 1.052
0.093493529 0.027207971 1.052
0.095481083 0.027207971 1.052
0.097468629 0.027207971 1.052
0.099550724 0.027233835 1.0530001
0.10154016 0.027233835 1.0530001
0.1035296 0.027233835 1.0530001
0.10541884 0.027207971 1.052
0.10740639 0.027207971 1.052
0.10939394 0.027207971 1.052
0.11148737 0.027233835 1.0530001
0.11358457 0.027259696 1.054
0.1155759 0.027259696 1.054
0.11745569 0.027233835 1.0530001
0.1193317 0.027207971 1.052
0.12143457 0.027233835 1.0530001
0.12342402 0.027233835 1.0530001
0.12553255 0.027259696 1.054
0.12740289 0.027233835 1.0530001
0.12939234 0.027233835 1.0530001
0.13138178 0.027233835 1.0530001
0.13337122 0.027233835 1.0530001
0.13548921 0.027259696 1.054
0.1373501 0.027233835 1.0530001
0.13920721 0.027207971 1.052
0.14119476 0.027207971 1.052
0.14304622 0.027182108 1.051
0.14489388 0.027156245 1.0500001
0.14673777 0.027130382 1.049
0.14886142 0.027156245 1.0500001
0.1508452 0.027156245 1.0500001
0.15282898 0.027156245 1.0500001
0.15481274 0.027156245 1.0500001
0.15679651 0.027156245 1.0500001
0.15878029 0.027156245 1.0500001
0.16061096 0.027130382 1.049
0.16259284 0.027130382 1.049
0.16457473 0.027130382 1.049
0.16671538 0.027156245 1.0500001
0.16869916 0.027156245 1.0500001
0.17084548 0.027182108 1.051
0.17283115 0.027182108 1.051
0.1748168 0.027182108 1.051
0.17646602 0.027130382 1.049
0.17827779 0.027104519 1.0480001
0.18025778 0.027104519 1.0480001
0.18241167 0.027130382 1.049
0.18456934 0.027156245 1.0500001
0.18637544 0.027130382 1.049
0.18835732 0.027130382 1.049
0.19015776 0.027104519 1.0480001
0.19213775 0.027104519 1.0480001
0.19411775 0.027104519 1.0480001
0.19628486 0.027130382 1.049
0.19826674 0.027130382 1.049
0.20024863 0.027130382 1.049
0.20223051 0.027130382 1.049
0.2042124 0.027130382 1.049
0.20619428 0.027130382 1.049
0.2083746 0.027156245 1.0500001
0.21035838 0.027156245 1.0500001
0.21234216 0.027156245 1.0500001
0.21432593 0.027156245 1.0500001
0.2163097 0.027156245 1.0500001
0.21829347 0.027156245 1.0500001
0.22027725 0.027156245 1.0500001
0.22183767 0.027104519 1.0480001
0.22381766 0.027104519 1.0480001
0.22601311 0.027130382 1.049
0.22799499 0.027130382 1.049
0.22997688 0.027130382 1.049
0.23195876 0.027130382 1.049
0.23371764 0.027104519 1.0480001
0.23569763 0.027104519 1.0480001
0.23767762 0.027104519 1.0480001
0.23965761 0.027104519 1.0480001
0.24140702 0.027078655 1.0470001
0.24292022 0.027026931 1.0450001
0.2446602 0.027001066 1.044
0.24663264 0.027001066 1.044
0.24860509 0.027001066 1.044
0.25081751 0.027026931 1.0450001
0.25279185 0.027026931 1.0450001
0.25500998 0.027052792 1.046
0.25747755 0.027104519 1.0480001
0.25945756 0.027104519 1.0480001
0.26118806 0.027078655 1.0470001
0.26316619 0.027078655 1.0470001
0.26489106 0.027052792 1.046
0.26686728 0.027052792 1.046
0.2688435 0.027052792 1.046
0.27107859 0.027078655 1.0470001
0.27305672 0.027078655 1.0470001
0.27529752 0.027104519 1.0480001
0.2772775 0.027104519 1.0480001
0.27925751 0.027104519 1.0480001
0.28123748 0.027104519 1.0480001
0.28294724 0.027078655 1.0470001
0.28465322 0.027052792 1.046
0.28635541 0.027026931 1.0450001
0.28832972 0.027026931 1.0450001
0.29030403 0.027026931 1.0450001
0.29255807 0.027052792 1.046
0.29425269 0.027026931 1.0450001
0.29622701 0.027026931 1.0450001
0.29820135 0.027026931 1.0450001
0.30017567 0.027026931 1.0450001
0.30243915 0.027052792 1.046
0.30470639 0.027078655 1.0470001
0.30668449 0.027078655 1.0470001
0.30866259 0.027078655 1.0470001
0.31064069 0.027078655 1.0470001
0.31261879 0.027078655 1.0470001
0.31459692 0.027078655 1.0470001
0.31627268 0.027052792 1.046
0.31824887 0.027052792 1.046
0.32022509 0.027052792 1.046
0.32220131 0.027052792 1.046
0.32417753 0.027052792 1.046
0.32615376 0.027052792 1.046
0.32812995 0.027052792 1.046
0.33010617 0.027052792 1.046
0.33208239 0.027052792 1.046
0.33373922 0.027026931 1.0450001
0.33571354 0.027026931 1.0450001
0.33801103 0.027052792 1.046
0.33966219 0.027026931 1.0450001
0.34163654 0.027026931 1.0450001
0.34361085 0.027026931 1.0450001
0.34525448 0.027001066 1.044
0.34722692 0.027001066 1.044
0.34886488 0.026975203 1.0430001
0.35083541 0.026975203 1.0430001
0.35280597 0.026975203 1.0430001
0.3554568 0.027026931 1.0450001
0.35811523 0.027078655 1.0470001
0.36043727 0.027104519 1.0480001
0.36241725 0.027104519 1.0480001
0.36404952 0.027078655 1.0470001
0.36567804 0.027052792 1.046
0.36730278 0.027026931 1.0450001
0.36892372 0.027001066 1.044
0.37054089 0.026975203 1.0430001
0.37251145 0.026975203 1.0430001
0.37448198 0.026975203 1.0430001
0.37681347 0.027001066 1.044
0.37878591 0.027001066 1.044
0.38075835 0.027001066 1.044
0.38273078 0.027001066 1.044
0.38470322 0.027001066 1.044
0.38630527 0.026975203 1.0430001
0.38790357 0.026949339 1.0420001
0.39024636 0.026975203 1.0430001
0.39184088 0.026949339 1.0420001
0.39380956 0.026949339 1.0420001
0.39615801 0.026975203 1.0430001
